16.1944 12.7466 -15.9563 0 0 0
16.1287 12.8049 -16.9606 0 0 0
16.0639 12.8663 -17.9729 0 0 0
16.0013 12.9311 -18.9732 0 0 0
15.9416 12.9996 -19.9401 0 0 0
15.8808 13.0827 -20.9248 0 0 0
15.8186 13.1804 -21.919 0 0 0
15.7555 13.2933 -22.9001 0 0 0
15.6898 13.4258 -23.8828 0 0 0
15.6212 13.5795 -24.8614 0 0 0
15.5481 13.7618 -25.832 0 0 0
15.4705 13.9702 -26.7928 0 0 0
15.3872 14.2062 -27.7578 0 0 0
15.298 14.47 -28.7262 0 0 0
15.2046 14.7557 -29.6775 0 0 0
15.1025 15.0791 -30.6331 0 0 0
15.0015 15.4205 -31.5872 0 0 0
14.9024 15.7695 -32.5307 0 0 0
14.8111 16.1338 -33.4613 0 0 0
14.722 16.5032 -34.3833 0 0 0
14.6354 16.8871 -35.2731 0 0 0
14.5414 17.2987 -36.1797 0 0 0
14.4406 17.7344 -37.0926 0 0 0
14.3189 18.2078 -37.984 0 0 0
14.1813 18.6932 -38.8366 0 0 0
14.0235 19.2015 -39.6708 0 0 0
13.8318 19.74 -40.4718 0 0 0
13.6027 20.3063 -41.2421 0 0 0
13.341 20.8984 -41.9965 0 0 0
13.0437 21.5092 -42.7169 0 0 0
12.7008 22.1394 -43.3968 0 0 0
12.3275 22.7895 -44.0678 0 0 0
11.9116 23.4599 -44.7147 0 0 0
11.4705 24.1261 -45.3232 0 0 0
11.0094 24.8012 -45.9224 0 0 0
10.5223 25.491 -46.4893 0 0 0
10.0316 26.1829 -47.051 0 0 0
9.53624 26.8783 -47.5559 0 0 0
9.03113 27.5828 -48.0524 0 0 0
8.51096 28.2932 -48.5034 0 0 0
7.9795 28.9991 -48.9153 0 0 0
7.42805 29.7147 -49.3011 0 0 0
6.83575 30.4324 -49.6218 0 0 0
6.22417 31.143 -49.9054 0 0 0
5.56886 31.8605 -50.1435 0 0 0
4.87224 32.5499 -50.3033 0 0 0
4.14595 33.2226 -50.418 0 0 0
3.39199 33.8698 -50.4809 0 0 0
2.59518 34.4703 -50.4679 0 0 0
1.77875 35.0453 -50.4202 0 0 0
0.943242 35.5802 -50.327 0 0 0
0.0944176 36.0634 -50.1891 0 0 0
-0.755735 36.5277 -50.0368 0 0 0
-1.64216 36.9398 -49.8338 0 0 0
-2.54172 37.3499 -49.6222 0 0 0
-3.46968 37.7142 -49.3627 0 0 0
-4.38806 38.0746 -49.1059 0 0 0
-5.28922 38.3613 -48.7949 0 0 0
-6.19111 38.646 -48.4815 0 0 0
-7.11424 38.8621 -48.0931 0 0 0
-8.02229 39.0542 -47.6922 0 0 0
-8.9224 39.1814 -47.2368 0 0 0
-9.79124 39.2575 -46.7535 0 0 0
-10.6264 39.2924 -46.2531 0 0 0
-11.4658 39.2537 -45.6796 0 0 0
-12.2875 39.1846 -45.0877 0 0 0
-13.0495 39.0607 -44.4803 0 0 0
-13.8098 38.8984 -43.8352 0 0 0
-14.562 38.7048 -43.1635 0 0 0
-15.2723 38.4723 -42.4773 0 0 0
-15.9821 38.2279 -41.7786 0 0 0
-16.6657 37.95 -41.059 0 0 0
-17.3383 37.6708 -40.3439 0 0 0
-17.9605 37.3887 -39.654 0 0 0
-18.5879 37.1025 -38.9558 0 0 0
-19.2053 36.806 -38.2477 0 0 0
-19.8165 36.5125 -37.5468 0 0 0
-20.4182 36.1894 -36.8195 0 0 0
-21.0178 35.8625 -36.0895 0 0 0
-21.5691 35.4972 -35.3503 0 0 0
-22.1204 35.1224 -34.6012 0 0 0
-22.6269 34.7031 -33.8283 0 0 0
-23.117 34.2783 -33.0574 0 0 0
-23.5534 33.8418 -32.2998 0 0 0
-23.9773 33.382 -31.5164 0 0 0
-24.3813 32.9007 -30.7125 0 0 0
-24.744 32.4138 -29.9103 0 0 0
-25.0963 31.9181 -29.0967 0 0 0
-25.4128 31.4138 -28.2677 0 0 0
-25.71 30.9221 -27.4532 0 0 0
-25.9839 30.4374 -26.64 0 0 0
-26.247 29.9525 -25.8079 0 0 0
-26.503 29.4675 -24.9633 0 0 0
-26.7394 29.0104 -24.1314 0 0 0
-26.9746 28.5535 -23.2917 0 0 0
-27.2109 28.1041 -22.4098 0 0 0
-27.4445 27.6622 -21.5344 0 0 0
-27.678 27.2482 -20.6473 0 0 0
-27.9116 26.8361 -19.7543 0 0 0
-28.1432 26.4466 -18.8194 0 0 0
-28.3773 26.0531 -17.8748 0 0 0
-28.6113 25.6596 -16.9302 0 0 0
-28.8263 25.2971 -15.9876 0 0 0
-29.0287 24.9548 -15.0288 0 0 0
-29.231 24.6125 -14.07 0 0 0
-29.4213 24.2867 -13.1078 0 0 0
-29.582 24.0025 -12.1487 0 0 0
-29.7442 23.7153 -11.1798 0 0 0
-29.8904 23.4469 -10.2079 0 0 0
-30.0034 23.2181 -9.2403 0 0 0
-30.1176 22.987 -8.26276 0 0 0
-30.1987 22.7878 -7.27969 0 0 0
-30.2566 22.6122 -6.30251 0 0 0
-30.3119 22.4372 -5.31453 0 0 0
-30.3075 22.3082 -4.31386 0 0 0
-30.3032 22.1791 -3.31318 0 0 0
-30.2519 22.0783 -2.30946 0 0 0
-30.1778 21.9891 -1.28904 0 0 0
-30.0731 21.9144 -0.283673 0 0 0
-29.9332 21.8577 0.693649 0 0 0
-29.7771 21.8037 1.6767 0 0 0
-29.5707 21.7616 2.64502 0 0 0
-29.3664 21.7198 3.60346 0 0 0
-29.0971 21.6762 4.56665 0 0 0
-28.8277 21.6325 5.52983 0 0 0
-28.5142 21.5753 6.48997 0 0 0
-28.1841 21.5136 7.46196 0 0 0
-27.8349 21.4359 8.41227 0 0 0
-27.4704 21.3454 9.34483 0 0 0
-27.1075 21.2535 10.2689 0 0 0
-26.7319 21.1496 11.2048 0 0 0
-26.3581 21.048 12.1432 0 0 0
-25.9947 20.9573 13.084 0 0 0
-25.6294 20.8694 14.0311 0 0 0
-25.27 20.7935 14.9676 0 0 0
-24.9139 20.7232 15.8885 0 0 0
-24.553 20.6642 16.8039 0 0 0
-24.1813 20.6105 17.7266 0 0 0
-23.7892 20.5671 18.6628 0 0 0
-23.3906 20.5341 19.5709 0 0 0
-22.9774 20.5109 20.4695 0 0 0
-22.529 20.5014 21.3679 0 0 0
-22.0665 20.4994 22.2569 0 0 0
-21.5612 20.5185 23.1052 0 0 0
-21.0393 20.5441 23.9443 0 0 0
-20.4546 20.5925 24.7535 0 0 0
-19.8327 20.6542 25.5355 0 0 0
-19.1758 20.7305 26.2775 0 0 0
-18.4643 20.8289 26.9452 0 0 0
-17.7191 20.9378 27.5913 0 0 0
-16.8975 21.0728 28.1569 0 0 0
-16.058 21.213 28.7095 0 0 0
-15.2068 21.3574 29.2414 0 0 0
-14.3747 21.4958 29.7926 0 0 0
-13.56 21.6294 30.3526 0 0 0
-12.782 21.7549 30.9273 0 0 0
-12.004 21.8802 31.5161 0 0 0
-11.2408 22.0037 32.1252 0 0 0
-10.4856 22.1284 32.7442 0 0 0
-9.72345 22.2564 33.3805 0 0 0
-8.97233 22.3899 34.018 0 0 0
-8.21502 22.5305 34.6574 0 0 0
-7.46044 22.6757 35.2912 0 0 0
-6.69839 22.8351 35.9093 0 0 0
-5.92858 23.0022 36.5182 0 0 0
-5.15671 23.1776 37.1086 0 0 0
-4.35203 23.3713 37.6898 0 0 0
-3.53914 23.5704 38.2657 0 0 0
-2.73498 23.78 38.7877 0 0 0
-1.91966 23.9933 39.314 0 0 0
-1.05874 24.2296 39.8217 0 0 0
-0.206592 24.4635 40.3243 0 0 0
0.657052 24.7095 40.8102 0 0 0
1.50735 24.9559 41.2927 0 0 0
2.33736 25.2028 41.7705 0 0 0
3.15326 25.458 42.2626 0 0 0
3.96971 25.7224 42.7739 0 0 0
4.7707 25.9978 43.3104 0 0 0
5.53321 26.2842 43.8796 0 0 0
6.27467 26.5843 44.4883 0 0 0
6.97836 26.8965 45.1366 0 0 0
7.59146 27.2162 45.8291 0 0 0
8.14407 27.5541 46.5898 0 0 0
8.6186 27.9031 47.4061 0 0 0
9.00391 28.2594 48.2725 0 0 0
9.26174 28.6126 49.1752 0 0 0
9.4058 28.959 50.1015 0 0 0
9.47262 29.2979 51.0365 0 0 0
9.44651 29.6238 51.9712 0 0 0
9.3521 29.942 52.9176 0 0 0
9.23151 30.2559 53.8646 0 0 0
9.0469 30.5554 54.8097 0 0 0
8.83551 30.8504 55.7571 0 0 0
8.56266 31.1224 56.6723 0 0 0
8.23046 31.381 57.5777 0 0 0
7.84273 31.6301 58.4816 0 0 0
7.38221 31.8496 59.3299 0 0 0
6.8502 32.0504 60.1488 0 0 0
6.26628 32.2334 60.9317 0 0 0
5.61258 32.3988 61.6828 0 0 0
4.90098 32.5388 62.3668 0 0 0
4.16417 32.6653 63.0098 0 0 0
3.38587 32.7809 63.6246 0 0 0
2.5572 32.8825 64.1942 0 0 0
1.72972 32.9772 64.7337 0 0 0
0.88823 33.0631 65.2348 0 0 0
0.0241559 33.1461 65.7195 0 0 0
-0.857388 33.2269 66.1913 0 0 0
-1.76268 33.295 66.638 0 0 0
-2.69019 33.3591 67.0813 0 0 0
-3.60674 33.3935 67.4629 0 0 0
-4.51315 33.4225 67.8304 0 0 0
-5.46767 33.4234 68.1473 0 0 0
-6.42111 33.4173 68.4433 0 0 0
-7.36201 33.3928 68.6815 0 0 0
-8.33775 33.3564 68.8868 0 0 0
-9.33667 33.3091 69.0587 0 0 0
-10.3302 33.2488 69.1602 0 0 0
-11.3366 33.1836 69.2359 0 0 0
-12.3518 33.1097 69.2434 0 0 0
-13.3499 33.0351 69.2103 0 0 0
-14.3215 32.9605 69.1386 0 0 0
-15.3177 32.8854 69.006 0 0 0
-16.3188 32.8104 68.8531 0 0 0
-17.2827 32.745 68.6331 0 0 0
-18.2526 32.6808 68.4015 0 0 0
-19.2011 32.6277 68.1172 0 0 0
-20.1354 32.5784 67.8248 0 0 0
-21.0596 32.5417 67.4858 0 0 0
-21.9827 32.4994 67.1312 0 0 0
-22.8987 32.4243 66.683 0 0 0
-23.762 32.3199 66.2015 0 0 0
-24.5642 32.1665 65.6552 0 0 0
-25.3274 31.9733 65.0524 0 0 0
-26.0506 31.7489 64.4089 0 0 0
-26.7293 31.4775 63.6986 0 0 0
-27.385 31.1862 62.9617 0 0 0
-27.9422 30.8662 62.2094 0 0 0
-28.4892 30.5372 61.445 0 0 0
-28.9664 30.168 60.6354 0 0 0
-29.4358 29.7943 59.8208 0 0 0
-29.8239 29.3898 58.982 0 0 0
-30.2122 28.9794 58.133 0 0 0
-30.5168 28.5408 57.2659 0 0 0
-30.8138 28.1056 56.4075 0 0 0
-31.0311 27.6469 55.538 0 0 0
-31.2386 27.187 54.6702 0 0 0
-31.3641 26.7212 53.8232 0 0 0
-31.4765 26.2458 52.9647 0 0 0
-31.5114 25.7452 52.0929 0 0 0
-31.5134 25.2433 51.2315 0 0 0
-31.4422 24.7215 50.3646 0 0 0
-31.3181 24.2065 49.4909 0 0 0
-31.152 23.6966 48.6113 0 0 0
-30.9876 23.192 47.7407 0 0 0
-30.8216 22.6821 46.8611 0 0 0
-30.6555 22.1723 45.9815 0 0 0
-30.4571 21.693 45.0984 0 0 0
-30.2283 21.2299 44.1956 0 0 0
-29.9996 20.7668 43.2929 0 0 0
-29.7732 20.3085 42.3994 0 0 0
-29.5444 19.8454 41.4967 0 0 0
-29.2889 19.4073 40.5892 0 0 0
-29.0104 18.9909 39.6776 0 0 0
-28.7348 18.5788 38.7755 0 0 0
-28.4562 18.1624 37.8639 0 0 0
-28.1777 17.746 36.9524 0 0 0
-27.8828 17.3581 36.053 0 0 0
-27.5674 16.9883 35.147 0 0 0
-27.2521 16.6185 34.2411 0 0 0
-26.9399 16.2524 33.3443 0 0 0
-26.6245 15.8826 32.4383 0 0 0
-26.2967 15.5367 31.5426 0 0 0
-25.9608 15.2166 30.6655 0 0 0
-25.6215 14.8933 29.7795 0 0 0
-25.2821 14.5699 28.8934 0 0 0
-24.9427 14.2466 28.0073 0 0 0
-24.5762 13.9299 27.0865 0 0 0
-24.1757 13.6133 26.113 0 0 0
-23.7752 13.2968 25.1395 0 0 0
-23.3787 12.9834 24.1759 0 0 0
-22.9785 12.6731 23.209 0 0 0
-22.58 12.4094 22.291 0 0 0
-22.1856 12.1484 21.3824 0 0 0
-21.7872 11.8847 20.4644 0 0 0
-21.3887 11.621 19.5464 0 0 0
-20.9676 11.3769 18.6038 0 0 0
-20.5426 11.1419 17.6618 0 0 0
-20.1133 10.9046 16.71 0 0 0
-19.6839 10.6673 15.7582 0 0 0
-19.2523 10.4653 14.8205 0 0 0
-18.8146 10.2673 13.8735 0 0 0
-18.377 10.0694 12.9263 0 0 0
-17.9502 9.8905 12.0048 0 0 0
-17.5324 9.74497 11.107 0 0 0
-17.1146 9.59944 10.2092 0 0 0
-16.7001 9.46245 9.31609 0 0 0
-16.2751 9.3689 8.38549 0 0 0
-15.8502 9.27535 7.45486 0 0 0
-15.4433 9.23969 6.52101 0 0 0
-15.0505 9.23688 5.59425 0 0 0
-14.7013 9.29339 4.64899 0 0 0
-14.3792 9.36917 3.69157 0 0 0
-14.0887 9.45067 2.72427 0 0 0
-13.8296 9.54934 1.74989 0 0 0
-13.5859 9.65968 0.773166 0 0 0
-13.3702 9.79697 -0.203587 0 0 0
-13.1737 9.96478 -1.18205 0 0 0
-12.9915 10.1527 -2.15525 0 0 0
-12.8397 10.4098 -3.13066 0 0 0
-12.7076 10.708 -4.08131 0 0 0
-12.5943 11.0577 -5.02423 0 0 0
-12.5231 11.5129 -5.90307 0 0 0
-12.4836 12.0589 -6.72518 0 0 0
-12.4815 12.7192 -7.47628 0 0 0
-12.5243 13.4957 -8.10405 0 0 0
-12.6212 14.3718 -8.5116 0 0 0
-12.7596 15.3209 -8.72451 0 0 0
-12.9263 16.2906 -8.81652 0 0 0
-13.1283 17.2498 -8.7862 0 0 0
-13.3767 18.2048 -8.67866 0 0 0
-13.6726 19.1344 -8.48654 0 0 0
-14.0188 20.024 -8.20226 0 0 0
-14.4091 20.8535 -7.83113 0 0 0
-14.8488 21.6191 -7.36517 0 0 0
-15.3296 22.2903 -6.81004 0 0 0
-15.8397 22.8428 -6.1786 0 0 0
-16.3862 23.278 -5.46182 0 0 0
-16.9471 23.5718 -4.68828 0 0 0
-17.4957 23.7198 -3.898 0 0 0
-18.0506 23.7403 -3.06866 0 0 0
-18.6075 23.6632 -2.23965 0 0 0
-19.1719 23.5301 -1.42571 0 0 0
-19.7486 23.3504 -0.644831 0 0 0
-20.3482 23.0981 0.10342 0 0 0
-20.9558 22.7837 0.813267 0 0 0
-21.5632 22.4014 1.47305 0 0 0
-22.1756 21.9341 2.08528 0 0 0
-22.7765 21.3775 2.63007 0 0 0
-23.3526 20.7282 3.09397 0 0 0
-23.8932 19.9819 3.46775 0 0 0
-24.366 19.159 3.72555 0 0 0
-24.7701 18.2782 3.88043 0 0 0
-25.1075 17.3519 3.94346 0 0 0
-25.38 16.4007 3.92683 0 0 0
-25.5972 15.4341 3.84554 0 0 0
-25.7447 14.4769 3.69104 0 0 0
-25.834 13.5208 3.46295 0 0 0
-25.8812 12.563 3.17082 0 0 0
-25.8905 11.643 2.82764 0 0 0
-25.8681 10.7425 2.42817 0 0 0
-25.8176 9.86893 1.97284 0 0 0
-25.7432 9.03948 1.46833 0 0 0
-25.6393 8.23611 0.872162 0 0 0
-25.5181 7.5005 0.218765 0 0 0
-25.3806 6.82927 -0.506435 0 0 0
-25.2335 6.2525 -1.28903 0 0 0
-25.0797 5.77872 -2.13648 0 0 0
-24.9252 5.42734 -3.03972 0 0 0
-24.7725 5.20447 -3.98167 0 0 0
-24.6061 5.07981 -4.95388 0 0 0
-24.4396 4.95514 -5.92609 0 0 0
-24.2653 4.84761 -6.88807 0 0 0
-24.0561 4.7948 -7.85771 0 0 0
-23.8469 4.74198 -8.82739 0 0 0
-23.6146 4.72726 -9.78212 0 0 0
-23.357 4.74649 -10.7422 0 0 0
-23.098 4.76741 -11.7024 0 0 0
-22.7861 4.8562 -12.6473 0 0 0
-22.4774 4.94409 -13.5825 0 0 0
-22.1242 5.07686 -14.5139 0 0 0
-21.7518 5.23006 -15.439 0 0 0
-21.3506 5.4093 -16.3436 0 0 0
-20.9113 5.61908 -17.2458 0 0 0
-20.4525 5.84258 -18.1162 0 0 0
-19.973 6.08177 -18.9363 0 0 0
-19.4602 6.33509 -19.7571 0 0 0
-18.8979 6.60869 -20.5639 0 0 0
-18.3142 6.88299 -21.3443 0 0 0
-17.7072 7.15547 -22.0807 0 0 0
-17.0694 7.42405 -22.7987 0 0 0
-16.4038 7.685 -23.4874 0 0 0
-15.717 7.92766 -24.1444 0 0 0
-14.9973 8.15826 -24.7852 0 0 0
-14.2457 8.36229 -25.4031 0 0 0
-13.4782 8.54463 -25.9976 0 0 0
-12.6802 8.71252 -26.5586 0 0 0
-11.8683 8.8704 -27.0954 0 0 0
-11.0105 9.03697 -27.5913 0 0 0
-10.1172 9.21037 -28.0753 0 0 0
-9.20692 9.38491 -28.4834 0 0 0
-8.2931 9.55969 -28.8756 0 0 0
-7.35789 9.73367 -29.1736 0 0 0
-6.41094 9.90834 -29.4529 0 0 0
-5.45569 10.0783 -29.6438 0 0 0
-4.50245 10.2433 -29.7803 0 0 0
-3.52911 10.4056 -29.8489 0 0 0
-2.55798 10.5561 -29.8066 0 0 0
-1.60154 10.6975 -29.7027 0 0 0
-0.657741 10.8204 -29.4562 0 0 0
0.252434 10.9216 -29.0832 0 0 0
1.12222 11.0024 -28.6037 0 0 0
1.89183 11.0458 -27.971 0 0 0
2.55366 11.0521 -27.2073 0 0 0
3.13114 11.034 -26.375 0 0 0
3.54743 10.9766 -25.4692 0 0 0
3.89885 10.9006 -24.485 0 0 0
4.17848 10.806 -23.4285 0 0 0
4.45524 10.7124 -22.3828 0 0 0
4.73488 10.6178 -21.3263 0 0 0
5.01451 10.5231 -20.2697 0 0 0
5.2031 10.4235 -19.2108 0 0 0
5.29405 10.3194 -18.159 0 0 0
5.38595 10.2142 -17.0963 0 0 0
5.47785 10.109 -16.0336 0 0 0
5.5496 10.0044 -14.9815 0 0 0
5.43443 9.893 -13.9159 0 0 0
5.31925 9.78165 -12.8502 0 0 0
5.20525 9.67144 -11.7954 0 0 0
5.05436 9.56218 -10.7489 0 0 0
4.75818 9.46143 -9.78003 0 0 0
4.46504 9.36172 -8.82114 0 0 0
4.16887 9.26097 -7.85238 0 0 0
3.82941 9.16453 -6.90292 0 0 0
3.38981 9.07801 -5.99804 0 0 0
2.95473 8.99239 -5.10244 0 0 0
2.51516 8.90588 -4.19761 0 0 0
2.03256 8.82664 -3.30538 0 0 0
1.49272 8.7587 -2.44044 0 0 0
0.947281 8.69006 -1.56653 0 0 0
0.401878 8.62142 -0.692683 0 0 0
-0.172159 8.56426 0.173255 0 0 0
-0.785817 8.51713 1.0491 0 0 0
-1.39951 8.46999 1.92499 0 0 0
-2.01317 8.42286 2.80083 0 0 0
-2.59606 8.3929 3.628 0 0 0
-3.16881 8.37335 4.43761 0 0 0
-3.74157 8.3538 5.24722 0 0 0
-4.30844 8.33446 6.04851 0 0 0
-4.87981 8.32066 6.8717 0 0 0
-5.44643 8.32669 7.74168 0 0 0
-6.00731 8.33265 8.60284 0 0 0
-6.57393 8.33868 9.47282 0 0 0
-7.14055 8.3447 10.3428 0 0 0
-7.66839 8.37469 11.2786 0 0 0
-8.19548 8.40952 12.2383 0 0 0
-8.72256 8.44435 13.1979 0 0 0
-9.24965 8.47918 14.1576 0 0 0
-9.71286 8.52441 15.1008 0 0 0
-10.1103 8.58292 16.0446 0 0 0
-10.5076 8.64144 16.9884 0 0 0
-10.901 8.69934 17.9225 0 0 0
-11.2983 8.75786 18.8664 0 0 0
-11.6541 8.83019 19.8683 0 0 0
-11.9553 8.91864 20.9309 0 0 0
-12.2596 9.00801 22.0044 0 0 0
-12.564 9.09738 23.0779 0 0 0
-12.8683 9.18675 24.1515 0 0 0
-13.1431 9.26748 25.1923 0 0 0
-13.3864 9.33905 26.2166 0 0 0
-13.6297 9.41063 27.2409 0 0 0
-13.8766 9.47178 28.2508 0 0 0
-14.1447 9.50345 29.2591 0 0 0
-14.4129 9.53512 30.2673 0 0 0
-14.6783 9.56487 31.2641 0 0 0
-14.9467 9.56688 32.249 0 0 0
-15.2152 9.5689 33.2341 0 0 0
-15.4809 9.5709 34.2091 0 0 0
-15.7284 9.55614 35.1676 0 0 0
-15.9726 9.53875 36.1221 0 0 0
-16.2168 9.52137 37.0766 0 0 0
-16.4377 9.49633 38.0528 0 0 0
-16.6509 9.46738 39.0528 0 0 0
-16.8641 9.43843 40.0528 0 0 0
-17.0234 9.40893 41.0654 0 0 0
-17.1678 9.37887 42.0955 0 0 0
-17.305 9.34957 43.1263 0 0 0
-17.3357 9.33182 44.1583 0 0 0
-17.3667 9.31388 45.201 0 0 0
-17.3064 9.31158 46.2397 0 0 0
-17.1727 9.32182 47.2756 0 0 0
-16.9977 9.34123 48.2815 0 0 0
-16.6639 9.39489 49.2262 0 0 0
-16.33 9.44855 50.1709 0 0 0
-15.7957 9.55174 51.0177 0 0 0
-15.2281 9.66281 51.8614 0 0 0
-14.5461 9.80593 52.6185 0 0 0
-13.7749 9.97449 53.2952 0 0 0
-12.9919 10.1461 53.9723 0 0 0
-12.0836 10.3604 54.4616 0 0 0
-11.1846 10.5725 54.9459 0 0 0
-10.271 10.7834 55.415 0 0 0
-9.30911 10.9683 55.7197 0 0 0
-8.32669 11.1226 55.9551 0 0 0
-7.32813 11.2372 56.1021 0 0 0
-6.30934 11.3161 56.159 0 0 0
-5.28603 11.3779 56.1737 0 0 0
-4.28542 11.4055 56.0943 0 0 0
-3.27661 11.427 55.9964 0 0 0
-2.30297 11.4235 55.8157 0 0 0
-1.34372 11.4169 55.6269 0 0 0
-0.378335 11.3948 55.3614 0 0 0
0.586263 11.3693 55.0799 0 0 0
1.5314 11.3356 54.7343 0 0 0
2.46103 11.2997 54.3732 0 0 0
3.36797 11.2616 53.955 0 0 0
4.26101 11.2227 53.5141 0 0 0
5.13318 11.1864 53.0153 0 0 0
6.00775 11.1509 52.4759 0 0 0
6.81807 11.1253 51.8917 0 0 0
7.59159 11.1044 51.2937 0 0 0
8.31569 11.1002 50.6201 0 0 0
9.01904 11.102 49.9223 0 0 0
9.61276 11.1349 49.1506 0 0 0
10.188 11.175 48.3519 0 0 0
10.6847 11.2354 47.4932 0 0 0
11.1815 11.2958 46.6345 0 0 0
11.6733 11.3556 45.7845 0 0 0
12.1701 11.4161 44.9258 0 0 0
12.6279 11.478 44.0301 0 0 0
13.0684 11.5398 43.1328 0 0 0
13.5133 11.6022 42.2263 0 0 0
13.9583 11.6646 41.3198 0 0 0
14.3439 11.7269 40.3776 0 0 0
14.7245 11.7898 39.419 0 0 0
15.105 11.8527 38.4603 0 0 0
15.4594 11.9153 37.4797 0 0 0
15.7635 11.9766 36.4699 0 0 0
16.0709 12.0386 35.4496 0 0 0
16.3618 12.0993 34.4319 0 0 0
16.5696 12.1531 33.4369 0 0 0
16.7796 12.2076 32.4316 0 0 0
16.9896 12.262 31.4265 0 0 0
17.1166 12.3083 30.4275 0 0 0
17.2433 12.355 29.4181 0 0 0
17.3699 12.4017 28.4086 0 0 0
17.4411 12.4417 27.3912 0 0 0
17.4983 12.4804 26.3584 0 0 0
17.5555 12.5191 25.3255 0 0 0
17.5794 12.5522 24.287 0 0 0
17.5811 12.5815 23.2554 0 0 0
17.5828 12.611 22.2119 0 0 0
17.5728 12.6376 21.1727 0 0 0
17.5371 12.6574 20.1493 0 0 0
17.5011 12.6774 19.1153 0 0 0
17.465 12.6974 18.0814 0 0 0
17.4143 12.71 17.0875 0 0 0
17.3594 12.7209 16.0906 0 0 0
17.3044 12.7318 15.0937 0 0 0
17.25 12.7425 14.107 0 0 0
17.1851 12.7469 13.0363 0 0 0
17.1191 12.7505 11.9573 0 0 0
17.0531 12.7541 10.8783 0 0 0
16.9878 12.7576 9.81115 0 0 0
16.9294 12.7541 8.76507 0 0 0
16.8711 12.7507 7.719 0 0 0
16.8133 12.7472 6.68353 0 0 0
16.755 12.7438 5.6376 0 0 0
16.7064 12.7365 4.62823 0 0 0
16.6643 12.727 3.65169 0 0 0
16.6305 12.7126 2.63808 0 0 0
16.5994 12.6968 1.61705 0 0 0
16.5789 12.6779 0.619453 0 0 0
16.5601 12.6585 -0.385735 0 0 0
16.5467 12.6382 -1.38363 0 0 0
16.5357 12.6186 -2.37832 0 0 0
16.527 12.5997 -3.35981 0 0 0
16.5193 12.5832 -4.3494 0 0 0
16.5119 12.5675 -5.33829 0 0 0
16.5031 12.5575 -6.318 0 0 0
16.493 12.5494 -7.30898 0 0 0
16.4796 12.5471 -8.30335 0 0 0
16.4625 12.5499 -9.29153 0 0 0
16.4416 12.5578 -10.294 0 0 0
16.4127 12.5749 -11.3052 0 0 0
16.3815 12.5949 -12.309 0 0 0
16.3375 12.6288 -13.3163 0 0 0
16.2906 12.6659 -14.3205 0 0 0
16.232 12.715 -15.3166 0 0 0
